# .PCD v0.7 - Point Cloud Data file format
VERSION 0.7
FIELDS x y z
SIZE 4 4 4
TYPE F F F
COUNT 1 1 1
WIDTH 1653
HEIGHT 1
VIEWPOINT 0 0 0 1 0 0 0
POINTS 1653
DATA ascii
0.67460001 1.3318 7.5528002
0.72280002 1.3318 7.5528002
0.77100003 1.3318 7.5528002
0.77100003 1.3235 7.5051999
0.8193 1.3235 7.5051999
0.86739999 1.3235 7.5051999
0.91570002 1.3235 7.5051999
0.96380001 1.3235 7.5051999
1.012 1.3235 7.5051999
1.0602 1.3235 7.5051999
1.1084 1.3235 7.5051999
1.1565 1.3235 7.5051999
1.2048 1.3235 7.5051999
1.2526 1.3232 7.5039001
1.25 1.3148 7.4559999
1.4468 1.296 7.3495002
1.4468 1.3047 7.3990998
1.4957 1.3132 7.4475999
1.5453 1.2728 7.4545999
1.5968 1.2369 7.4611001
1.6013 1.191 7.4166999
1.6069 1.148 7.3720002
1.6141 1.1046 7.3273001
1.6234 1.0599 7.2828002
1.6344 1.024 7.2891998
1.6473 0.98879999 7.2954001
1.6616 0.95410001 7.3014002
1.6776 0.92009997 7.3074002
1.6953 0.88700002 7.3133001
1.7145 0.85470003 7.3189001
1.7351 0.82300001 7.3245001
1.7575001 0.79229999 7.3298998
1.7812001 0.76270002 7.3351998
1.8061 0.7342 7.3401999
1.8322001 0.70709997 7.3449998
1.8598 0.68120003 7.3495998
1.8886 0.65649998 7.3540001
1.9184999 0.63309997 7.3580999
1.9496 0.61089998 7.3618999
1.9815 0.59039998 7.3656998
2.0144999 0.57139999 7.369
2.0481999 0.55379999 7.3720002
2.0826001 0.53789997 7.3748002
2.1177001 0.52350003 7.3772998
2.1533 0.51990002 7.4303002
2.1898999 0.50880003 7.4324002
2.2270999 0.49939999 7.434
2.2634001 0.50089997 7.4860001
2.3010001 0.49470001 7.4871001
2.3375001 0.49959999 7.5387001
2.3748 0.50590003 7.5897999
2.3726001 0.45789999 7.5984001
2.4138999 0.40900001 7.6069999
2.4138999 0.35249999 7.5668001
2.4138999 0.18359999 7.5237002
2.4138999 0.1402 7.5279002
2.4138999 0.097900003 7.5345001
2.4138999 0.096699998 7.5798001
2.4138999 0.0471 7.5896001
2.3645999 9.9999997e-05 7.6437001
2.1675999 9.9999997e-05 7.8407998
1.9708 9.9999997e-05 7.5451002
1.9272 9.9999997e-05 7.494
1.9256999 9.9999997e-05 7.4575
1.9704 9.9999997e-05 7.4523001
1.3131 0.1008 6.7154999
1.2636 0.1016 6.7072001
1.2138 0.0526 6.6409998
1.2138 0.051399998 6.5827999
1.1677001 9.9999997e-05 6.5847998
1.1145999 9.9999997e-05 6.5862999
1.0793999 9.9999997e-05 6.5398002
1.0366 9.9999997e-05 6.5433002
0.98820001 9.9999997e-05 6.5395999
0.94139999 9.9999997e-05 6.5640998
0.9411 9.9999997e-05 6.5314002
0.89770001 9.9999997e-05 6.5289001
0.85339999 9.9999997e-05 6.5265999
0.81300002 9.9999997e-05 6.5300002
0.7705 9.9999997e-05 6.5778999
0.16419999 0.4456 7.329
0.1314 0.40099999 7.3316002
0.098399997 0.36000001 7.3337002
0.0656 0.32030001 7.3354001
0.0328 0.27970001 7.3372002
0 0.23729999 7.3386002
0 0.28459999 7.3369999
0 0.33219999 7.3348999
0 0.52499998 7.3713999
0 0.57639998 7.4155998
0 0.62440002 7.4116998
0 0.57270002 7.3678999
0 0.62040001 7.3639998
0 0.67220002 7.4074998
0 0.72030002 7.4031
0 0.93300003 7.6100998
0.045000002 1.0322 7.6480999
0.087200001 1.0728 7.6424999
0.125 1.1126 7.6367998
0.16779999 1.108 7.6374002
0.19840001 1.1515 7.631
0.22390001 1.1971999 7.6240001
0.2458 1.2444 7.6163998
0.26699999 1.2923 7.6083999
0.289 1.3401 7.6001
0.33289999 1.3321 7.5545001
0.38080001 1.3319 7.5538998
0.43380001 1.3318 7.5528002
0.53009999 1.3235 7.5051999
0.57819998 1.3235 7.5051999
0.62650001 1.3235 7.5051999
0.67460001 1.3235 7.5051999
0.72280002 1.3235 7.5051999
0.72259998 1.316 7.4629998
0.77100003 1.3152 7.4577999
0.8193 1.3152 7.4577999
0.86739999 1.3152 7.4577999
0.91570002 1.3152 7.4577999
0.96380001 1.3152 7.4577999
1.012 1.3152 7.4577999
1.0602 1.3152 7.4577999
1.1084 1.3152 7.4577999
1.1974 1.2973 7.3565001
1.4933 1.2955 7.3466001
1.4957 1.3047 7.3987002
1.5443 1.3132 7.4475999
1.5941 1.2751 7.4542999
1.5968 1.2284 7.4102001
1.6008 1.1847 7.3655
1.6066 1.141 7.3207998
1.6141 1.0961 7.2764001
1.6141 1.0868 7.2255998
1.6236 1.0506001 7.2319999
1.6346 1.0148 7.2384
1.6474 0.97939998 7.2445998
1.6618 0.94480002 7.2507
1.6778001 0.91109997 7.2565999
1.6954 0.8779 7.2624998
1.7145 0.84539998 7.2680998
1.7352 0.81389999 7.2737002
1.7575001 0.78320003 7.2792001
1.7812001 0.75349998 7.2845001
1.8063 0.7252 7.2895002
1.8324 0.69800001 7.2943001
1.8599 0.67210001 7.2989001
1.8887 0.64740002 7.3031998
1.9187 0.6239 7.3072
1.9497 0.602 7.3112001
1.9815 0.58139998 7.3147998
2.0144999 0.56239998 7.3181
2.0481999 0.54500002 7.3211002
2.0824001 0.52899998 7.3239999
2.1176 0.51480001 7.3266001
2.1535001 0.50199997 7.3288002
2.1538 0.51090002 7.3794999
2.1902001 0.49970001 7.3815999
2.2274001 0.49020001 7.3832998
2.2644999 0.49169999 7.4352002
2.3018999 0.4858 7.4363999
2.3385999 0.49039999 7.4878998
2.3756001 0.49700001 7.5391998
2.4138999 0.505 7.5900998
2.4138999 0.45699999 7.5984998
2.4138999 0.4003 7.5580001
2.4138999 0.13959999 7.4931998
2.4138999 0.098999999 7.4956999
2.4138999 0.049400002 7.4956999
2.4138999 0.048300002 7.5402002
2.3645999 9.9999997e-05 7.5451002
2.3645999 9.9999997e-05 7.5942998
1.9712 9.9999997e-05 7.4956999
2.0197999 9.9999997e-05 7.4956999
2.02 9.9999997e-05 7.4466
1.6055 9.9999997e-05 6.8084998
1.5552 9.9999997e-05 6.8021998
1.2637 0.1524 6.7062998
1.2138 0.1014 6.5822001
1.2138 0.099699996 6.5240998
1.2138 0.050299998 6.5247998
1.1679 9.9999997e-05 6.5307002
1.1193 9.9999997e-05 6.5358
1.0832 9.9999997e-05 6.4963999
1.0378 9.9999997e-05 6.4963999
0.98750001 9.9999997e-05 6.494
0.93959999 9.9999997e-05 6.4924002
0.89490002 9.9999997e-05 6.4881001
0.847 9.9999997e-05 6.4864001
0.80940002 9.9999997e-05 6.4881001
0.76819998 9.9999997e-05 6.5317998
0.71700001 9.9999997e-05 6.5778999
0.16419999 0.50120002 7.3253002
0.1314 0.45429999 7.3284001
0.098399997 0.41100001 7.3309002
0.0656 0.3696 7.3330998
0.0328 0.32780001 7.3351002
0.0328 0.37599999 7.3327999
0.0328 0.42410001 7.3301001
0.0328 0.47220001 7.3273001
0.0328 0.52029997 7.3239999
0 0.52170002 7.3239002
0.0328 0.56840003 7.3204002
0 0.56900001 7.3204002
0 0.6164 7.3165002
0 0.66790003 7.3599
0 0.71560001 7.3554001
0 0.76810002 7.3983002
0 0.98290002 7.6037998
0.0436 1.0809 7.6413999
0.083300002 1.1194 7.6357999
0.1164 1.1572 7.6301999
0.1564 1.1535 7.6307001
0.1807 1.1976 7.6240001
0.2009 1.2443 7.6163998
0.22 1.2923 7.6083999
0.24079999 1.3401 7.6001
0.289 1.3318 7.5525999
0.32550001 1.3235 7.5057001
0.3712 1.3237 7.5064998
0.57819998 1.3152 7.4577999
0.62650001 1.3152 7.4577999
0.67809999 1.3156 7.4612999
0.72369999 1.3099 7.4285002
0.76700002 1.3083 7.4187999
0.8193 1.3067 7.4102998
0.86739999 1.3067 7.4102998
0.91570002 1.3067 7.4102998
0.96380001 1.3067 7.4102998
1.012 1.3067 7.4102998
1.0602 1.3067 7.4102998
1.1084 1.3067 7.4102998
1.1565 1.3067 7.4102998
1.1554 1.2983 7.3628998
1.1501 1.2898999 7.3141999
1.194 1.2894 7.3119998
1.2415 1.2878 7.3028002
1.5419 1.2775 7.2445002
1.5421 1.2865 7.2951999
1.5425 1.2953 7.3460002
1.5433 1.3043 7.3966999
1.5932 1.3043 7.3969002
1.5932 1.3132 7.4475999
1.5941 1.266 7.4033999
1.5965 1.2213 7.3590999
1.6006 1.1774 7.3144002
1.6064 1.1325999 7.2698998
1.6064 1.1233 7.2192001
1.6066 1.1138 7.1686001
1.6142 1.0774 7.1750002
1.6237 1.0411 7.1813998
1.6348 1.0053 7.1876998
1.6475 0.97000003 7.1939001
1.6619 0.93540001 7.1999998
1.678 0.9016 7.2059002
1.6955 0.86839998 7.2119002
1.7148 0.83609998 7.2175999
1.7356 0.8046 7.2231002
1.7579 0.77389997 7.2284999
1.7814 0.74440002 7.2336001
1.8063 0.71609998 7.2386999
1.8326 0.68889999 7.2435002
1.8601 0.66289997 7.2480001
1.8887 0.6383 7.2522998
1.9187 0.61500001 7.2564998
1.9496 0.59299999 7.2603998
1.9815 0.57249999 7.2639999
2.0144 0.5535 7.2673998
2.0480001 0.53609997 7.2704
2.0822999 0.52020001 7.2733002
2.1173999 0.50580001 7.2757001
2.1533 0.49309999 7.2781
2.1898 0.48199999 7.2800002
2.1901 0.49090001 7.3306999
2.2270999 0.48140001 7.3323002
2.2642 0.4738 7.3337998
2.2644999 0.48269999 7.3845
2.3018999 0.47679999 7.3857002
2.3390999 0.4725 7.3863001
2.3392999 0.48140001 7.4372001
2.3763001 0.48809999 7.4884
2.4138999 0.49610001 7.5393
2.4138999 0.44819999 7.5486999
2.4138999 0.098800004 7.4464998
2.4138999 0.049400002 7.4464998
2.3645999 9.9999997e-05 7.4956999
2.3152001 9.9999997e-05 7.4956999
1.2637 0.2032 6.7048998
1.204 0.14740001 6.4745002
1.204 0.098300003 6.4755001
1.204 0.0491 6.4761
1.1591001 9.9999997e-05 6.4931998
1.1212 9.9999997e-05 6.4963999
1.1213 9.9999997e-05 6.4545999
1.0852 9.9999997e-05 6.4487
1.0389 9.9999997e-05 6.4478998
0.98900002 9.9999997e-05 6.4464998
0.94139999 9.9999997e-05 6.4446998
0.89130002 9.9999997e-05 6.4428
0.84249997 9.9999997e-05 6.4428
0.79879999 9.9999997e-05 6.4454999
0.7676 9.9999997e-05 6.4899998
0.72259998 9.9999997e-05 6.4935002
0.71700001 9.9999997e-05 6.5302
0.16419999 0.55669999 7.3213
0.1314 0.50739998 7.3249002
0.098399997 0.4621 7.3277998
0.0656 0.41909999 7.3305001
0.0656 0.46830001 7.3274999
0.0656 0.51770002 7.3242002
0.0656 0.56699997 7.3204999
0.0656 0.61610001 7.3165002
0.0328 0.6164 7.3165002
0 0.66360003 7.3123002
0 0.76310003 7.3505998
0 0.81590003 7.3930998
0 1.0329 7.5970998
0.0416 1.1288 7.6343002
0.078000002 1.1638 7.6293001
0.1039 1.1993001 7.6237001
0.14030001 1.198 7.6237998
0.1575 1.2438 7.6166
0.1737 1.2919 7.6086001
0.1927 1.3401 7.6001
0.24079999 1.3318 7.5524001
0.24770001 1.3235 7.5050998
0.28920001 1.3233 7.5047002
0.31900001 1.3171 7.4685998
0.36149999 1.3164001 7.4651999
0.68360001 1.3085999 7.4207001
0.81840003 1.3001 7.3724999
0.86760002 1.3 7.3716002
0.91570002 1.2983 7.3631001
0.96380001 1.2983 7.3631001
1.012 1.2983 7.3628998
1.0602 1.2983 7.3628998
1.1084 1.2983 7.3628998
1.1084 1.2901 7.3157001
1.1416 1.2825 7.2726002
1.1802 1.28 7.2581
1.2213 1.2761 7.2365999
1.2352 1.2673 7.1869001
1.4915 1.2685 7.1933999
1.5417 1.2686 7.1936002
1.5932 1.2686 7.1936002
1.5932 1.2775 7.2445002
1.5932 1.2865 7.2951999
1.5932 1.2953 7.3460002
1.594 1.2582 7.3525
1.5965 1.2137001 7.3080001
1.6005 1.1688 7.2635002
1.6006 1.1596 7.2128
1.6006 1.1503 7.1620002
1.6006 1.141 7.1114998
1.6068 1.1042 7.1178999
1.6144 1.0677 7.1243
1.6238 1.0316 7.1307001
1.6349 0.9957 7.1371002
1.6479 0.9605 7.1430998
1.6623 0.92589998 7.1493001
1.6783 0.89209998 7.1553998
1.6959 0.85900003 7.1610999
1.7151 0.82669997 7.1669002
1.7357 0.79509997 7.1722999
1.758 0.76480001 7.1778002
1.7816 0.7353 7.1830001
1.8065 0.70700002 7.1880002
1.8327 0.67979997 7.1928
1.8602 0.65399998 7.1971998
1.8889 0.62940001 7.2016001
1.9187 0.60600001 7.2056999
1.9496 0.58420002 7.2096
1.9814 0.56349999 7.2133002
2.0141001 0.54470003 7.2167001
2.0478001 0.52719998 7.2196002
2.0820999 0.51130003 7.2224002
2.1173 0.49700001 7.2248998
2.1530001 0.4842 7.2272
2.1895001 0.47319999 7.2291002
2.2263 0.4637 7.2308998
2.2265999 0.47260001 7.2816
2.2637999 0.465 7.2828999
2.3011999 0.4589 7.2839999
2.3015001 0.46779999 7.3347998
2.3389001 0.4637 7.3354998
2.3763001 0.46110001 7.3361001
2.3764 0.47009999 7.3867998
2.3764999 0.47909999 7.4375
2.4138999 0.48699999 7.4884
2.4138999 0.43689999 7.4973998
2.4138999 0.42739999 7.4466
2.4138999 0.25929999 7.3116002
2.4138999 0.104 7.3386998
2.4138999 0.1012 7.3910999
2.4138999 0.049400002 7.3972998
2.3645999 9.9999997e-05 7.3972998
2.3645999 9.9999997e-05 7.4464998
1.8116 0.050500002 6.7789998
1.7615 0.050500002 6.7744002
1.6615 0.050500002 6.7639999
1.6114 0.050299998 6.7582998
1.5616 0.050299998 6.7522001
1.5116 0.050299998 6.7456002
1.5118001 0.1005 6.7452002
1.5118001 0.1505 6.7442002
1.2637 0.25389999 6.7031999
1.1767 0.14669999 6.4342999
1.1767 0.097900003 6.4352002
1.1767 0.048799999 6.4358001
1.1504 9.9999997e-05 6.4626002
0.76130003 9.9999997e-05 6.4548001
0.73030001 9.9999997e-05 6.4646001
0.16419999 0.61220002 7.3168001
0.1314 0.5607 7.3210001
0.098399997 0.51310003 7.3245001
0.098399997 0.56419998 7.3207002
0.098399997 0.61519998 7.3165998
0.0656 0.66540003 7.3122001
0.0328 0.66439998 7.3123002
0.0328 0.71240002 7.3077002
0 0.8107 7.3453999
0 0.86369997 7.3878002
0 1.0827 7.5900998
0 1.1401 7.6328001
0.0394 1.1754 7.6275001
0.071400002 1.2036 7.6230001
0.085299999 1.2386 7.6174002
0.1179 1.2422 7.6167002
0.1288 1.2911 7.6086001
0.1445 1.3401 7.6001
0.1927 1.3318 7.5521002
0.193 1.3232 7.5033998
0.2543 1.3168 7.4671998
0.28839999 1.3174 7.4707999
0.2886 1.3131 7.4463
0.31209999 1.3111 7.4359002
0.35069999 1.3089 7.4222999
0.91390002 1.2923 7.3284998
0.96420002 1.2917 7.3252001
1.0118001 1.291 7.3213
1.0602 1.2901 7.316
1.104 1.2837 7.2796001
1.1366 1.2763 7.2375998
1.1711 1.2742 7.2255998
1.1957 1.2724 7.2160001
1.1993999 1.2673 7.1869001
1.2055 1.2585 7.1366
1.2455 1.2585 7.1371002
1.3028001 1.2585 7.1370001
1.3513 1.2585 7.1371002
1.3994 1.2586 7.1374998
1.4476 1.2588 7.1385002
1.4957 1.2592 7.1402998
1.5424 1.2596 7.1427999
1.5932 1.2596 7.1427999
1.594 1.2323999 7.1999998
1.594 1.2414 7.2507
1.594 1.25 7.3016
1.5965 1.2052 7.2571001
1.5965 1.1961 7.2063999
1.5965 1.1869 7.1557002
1.5965 1.1779 7.1048999
1.5965 1.1677999 7.0542998
1.601 1.1307 7.0609002
1.607 1.0937999 7.0672998
1.6148 1.0572 7.0739002
1.6243 1.0208 7.0802002
1.6356 0.98509997 7.0865002
1.6483999 0.9501 7.0928001
1.6629 0.91570002 7.0988002
1.6789 0.88169998 7.1048002
1.6967 0.84859997 7.1104999
1.7158999 0.81639999 7.1163001
1.7365 0.78530002 7.1216998
1.7586 0.75480002 7.1272001
1.7823 0.72549999 7.1322999
1.8071001 0.69739997 7.1371999
1.8333 0.67030001 7.1420002
1.8607 0.64459997 7.1465998
1.8894 0.61989999 7.1508002
1.9191 0.59670001 7.1550002
1.9499 0.57489997 7.1588998
1.9815 0.5546 7.1624999
2.0144 0.53549999 7.1658001
2.0478001 0.51810002 7.1690001
2.0822999 0.50230002 7.1715999
2.1173 0.48809999 7.1742001
2.1530001 0.4752 7.1764002
2.1891999 0.46419999 7.1784
2.2258 0.4549 7.1799998
2.2629001 0.4472 7.1813998
2.2634001 0.456 7.2322001
2.3006999 0.4501 7.2333002
2.3383 0.44569999 7.2339001
2.3385999 0.45480001 7.2848001
2.3763001 0.4522 7.2852998
2.4138999 0.45120001 7.2852998
2.4138999 0.46020001 7.3362002
2.4138999 0.46919999 7.3870001
2.4138999 0.4781 7.4376998
2.4138999 0.41839999 7.3958998
2.4138999 0.40959999 7.3449998
2.4138999 0.36250001 7.3466001
2.4138999 0.30720001 7.3037
2.4138999 0.29879999 7.2564998
2.4138999 0.25130001 7.2645998
2.4138999 0.2036 7.2729998
2.4138999 0.1517 7.2803998
2.4138999 0.1019 7.2902002
2.4138999 0.049400002 7.2986999
2.4138999 0.049400002 7.3481002
2.3645999 9.9999997e-05 7.3481002
2.3152001 9.9999997e-05 7.3481002
2.3152001 9.9999997e-05 7.3972998
2.266 9.9999997e-05 7.3972998
1.7526 0.1007 6.7729998
1.7025 0.1004 6.7677999
1.6615 0.1005 6.7634001
1.6115 0.1005 6.7575998
1.5616 0.1005 6.7515998
1.5556999 0.1478 6.7498999
1.5505 0.1877 6.7484002
1.5122 0.18719999 6.7434001
1.2637 0.3046 6.7010999
1.1364 0.146 6.4078002
1.1364 0.097400002 6.4085002
1.1364 0.048700001 6.4092002
1.0888 0.048700001 6.3997998
1.0389 0.048700001 6.3997998
0.98900002 0.048700001 6.3997998
0.88910002 0.048700001 6.3997998
0.83920002 0.048700001 6.3997998
0.78920001 0.048700001 6.3997998
0.2132 0.66759998 7.3095999
0.16419999 0.66780001 7.3119998
0.1314 0.61379999 7.3165998
0.1314 0.66710001 7.3119998
0.098399997 0.6663 7.3122001
0.0656 0.71450001 7.3074999
0.0328 0.76050001 7.3028998
0 0.85259998 7.2927999
0 0.85820001 7.3400998
0 0.90560001 7.3344002
0 0.91149998 7.3818998
0 1.1325999 7.5827999
0 1.1902 7.6251001
0.0374 1.2186 7.6206002
0.065399997 1.2326 7.6184001
0.039000001 1.2557 7.6146998
0.052999999 1.2808 7.6104002
0.086999997 1.2886 7.6090002
0.096299998 1.3401 7.6001
0.1445 1.3317 7.5516
0.26530001 1.3107001 7.4327998
0.96719998 1.2852 7.2880001
1.0141 1.2846 7.2852998
1.0608 1.2838 7.2804999
1.0948 1.2769001 7.2410002
1.1242 1.2687 7.1946998
1.1648 1.2678 7.1897998
1.1568 1.2585 7.1364002
1.2543 1.25 7.0889001
1.3028001 1.25 7.0890002
1.3513 1.25 7.0890002
1.3997999 1.2502 7.0893002
1.4482 1.2502 7.0896001
1.4964 1.2502 7.0900998
1.5448 1.2503 7.0907998
1.5932 1.2507 7.0921001
1.594 1.2145 7.0984001
1.594 1.2233 7.1493001
1.594 1.2049 7.0478001
1.5483 1.1641001 7.0549998
1.553 1.1247 7.0619001
1.5594 1.0858001 7.0686998
1.5675 1.0470999 7.0756998
1.5776 1.0088 7.0823002
1.5893 0.97109997 7.0890002
1.6029 0.9339 7.0955
1.6183 0.89740002 7.1020002
1.6352 0.86159998 7.1083002
1.6538 0.82669997 7.1145
1.6741 0.79259998 7.1205001
1.6959 0.75950003 7.1262999
1.7192 0.72729999 7.1318998
1.7442 0.69630003 7.1374002
1.7704 0.6663 7.1427999
1.7981 0.63770002 7.1478
1.8271 0.6103 7.1525998
1.8573999 0.58420002 7.1571999
1.8889 0.55949998 7.1616001
1.9216 0.53640002 7.1658001
1.9552 0.51480001 7.1694002
1.9898 0.4946 7.1731
2.0251999 0.47620001 7.1763
2.0616 0.45919999 7.1792998
2.0989001 0.44400001 7.1819
2.1366999 0.43040001 7.1842999
2.1751001 0.41870001 7.1863999
2.2139001 0.40869999 7.1880999
2.2534001 0.4005 7.1896
2.2934999 0.39410001 7.1907001
2.3004 0.44119999 7.1824999
2.3382001 0.4368 7.1831999
2.3759999 0.43419999 7.1837001
2.3761001 0.44319999 7.2343998
2.4138999 0.44240001 7.2344999
2.4138999 0.40149999 7.2887998
2.4138999 0.35460001 7.2954998
2.4138999 0.34650001 7.2480998
2.4138999 0.3382 7.2006998
2.4138999 0.29049999 7.2090001
2.4138999 0.243 7.2175002
2.4138999 0.1953 7.2256999
2.4138999 0.14839999 7.2340999
2.4138999 0.098800004 7.2413998
2.4138999 0.049400002 7.2494998
2.3645999 9.9999997e-05 7.2986999
2.3152001 9.9999997e-05 7.2986999
2.0218999 0.1495 6.7930002
1.9184999 0.1857 6.7852998
1.7388 0.16429999 6.7701998
1.693 0.14820001 6.7660999
1.6594 0.1436 6.7624002
1.6088001 0.1459 6.7564998
1.6077 0.1873 6.7554002
1.316 0.3504 6.7076998
1.2637 0.35530001 6.6985998
1.2039 0.29480001 6.4695001
1.1768 0.2931 6.4292998
1.1365 0.29179999 6.4025998
1.0888 0.097199999 6.3990998
1.0389 0.097199999 6.3990998
0.98900002 0.097199999 6.3990998
0.83920002 0.097199999 6.3990998
0.2132 0.72299999 7.3042998
0.16419999 0.72329998 7.3067002
0.1314 0.72030002 7.3070998
0.098399997 0.71719998 7.3074002
1.0154999 1.2792 7.2536998
1.0555 1.278 7.2477002
1.0479 1.2721 7.2136002
1.0845 1.2697001 7.2007999
1.206 1.2415 7.0405998
1.2546 1.2415 7.0409999
1.3032 1.2417001 7.0414
1.3513 1.2417001 7.0414
1.3997999 1.2417001 7.0414
1.4482 1.2417001 7.0414
1.4964 1.2417001 7.0414
1.5448 1.2417001 7.0414
1.5456001 1.2034 7.0479002
1.5001 1.1604 7.0556002
1.505 1.119 7.0630002
1.5116 1.0778 7.0702
1.5203 1.0369999 7.0774002
1.5309 0.99659997 7.0846
1.5432 0.95679998 7.0914998
1.5575 0.91759998 7.0984001
1.5736001 0.87919998 7.1051998
1.5915 0.84130001 7.1118999
1.6111 0.80430001 7.1184001
1.6325001 0.7683 7.1248002
1.6556 0.73339999 7.1307998
1.6802 0.69950002 7.1370001
1.7064 0.66649997 7.1427002
1.7342 0.63489997 7.1483002
1.7632 0.60470003 7.1536002
1.7938 0.57569999 7.1587
1.8259 0.54820001 7.1634998
1.8592 0.52209997 7.1680999
1.8934 0.49759999 7.1725001
1.9289 0.47479999 7.1764002
1.9655 0.45339999 7.1803002
2.003 0.43380001 7.1837001
2.0415001 0.41600001 7.1869001
2.0810001 0.39989999 7.1897998
2.1206999 0.3856 7.1922998
2.1612999 0.37310001 7.1946001
2.2025001 0.36250001 7.1963
2.2441001 0.35370001 7.1978998
2.2867999 0.34689999 7.1989999
2.3290999 0.34200001 7.1999998
2.3334999 0.38949999 7.1915002
2.3736999 0.3867 7.1922002
2.4138999 0.38569999 7.1922002
2.4138999 0.39430001 7.2405
2.3714001 0.33919999 7.2003999
2.3691001 0.2915 7.2087998
2.3668001 0.244 7.2171998
2.3647001 0.1964 7.2255998
2.4138999 0.18719999 7.1789999
2.4138999 0.1401 7.1873002
2.4138999 0.095100001 7.1982002
2.4138999 0.049400002 7.2002001
2.3645999 9.9999997e-05 7.2002001
2.3645999 9.9999997e-05 7.2494998
2.1589999 9.9999997e-05 6.9025002
2.0624001 0.0506 6.7965999
2.0648 0.091300003 6.7964001
2.0703001 0.1345 6.7958002
2.0766001 0.1752 6.7951999
1.8971 0.25330001 6.7814002
1.873 0.20919999 6.7810998
1.7661 0.22059999 6.7712998
1.7005 0.2042 6.7652998
1.6811 0.1788 6.7639999
1.6554 0.1822 6.7610998
1.6667 0.2247 6.7610002
1.314 0.40650001 6.7041998
1.2639 0.4061 6.6957002
1.2039 0.34400001 6.4668999
1.1768 0.34169999 6.4268999
1.1365 0.34029999 6.4001999
0.2132 0.77829999 7.2986002
0.16419999 0.77869999 7.3010001
0.1314 0.77319998 7.3016
0.098399997 0.76810002 7.3021002
0.0656 0.76370001 7.3025999
0.0328 0.80830002 7.2978001
0.0328 0.85610002 7.2923002
0 0.89990002 7.2870002
0 0.94690001 7.2810998
0 0.95300001 7.3284001
0 0.95920002 7.3759999
0 1.0067 7.3699002
0 1.1823 7.5752001
0 1.2402 7.6170998
0 1.2902 7.6086998
0.048099998 1.3401 7.6001
0.096299998 1.3315001 7.5507998
0.098300003 1.3224 7.4991002
0.1655 1.2841001 7.2818999
1.0178 1.2745 7.2277002
1.1572 1.2414 7.0398998
1.1586 1.233 6.9927001
1.2071 1.2332 6.9937
1.2552 1.2334 6.9942999
1.3034 1.2334 6.9945002
1.3513 1.2334 6.9945002
1.3526 1.1851 7.0029998
1.3526 1.1933 7.0497999
1.4006 1.1995 7.0486999
1.449 1.2007 7.0486002
1.4972 1.202 7.0482998
1.4519 1.1567 7.0563002
1.4569 1.113 7.0640001
1.464 1.0698 7.0717001
1.4730999 1.0267 7.0791998
1.4842 0.98439997 7.0865998
1.4971 0.94239998 7.0939999
1.5122 0.90109998 7.1013999
1.5290999 0.86049998 7.1086001
1.5479 0.82059997 7.1155
1.5687 0.78170002 7.1223998
1.5911 0.74379998 7.1290998
1.6152 0.70679998 7.1357002
1.6411 0.67110002 7.1419001
1.6688 0.63660002 7.1479998
1.6982 0.60329998 7.1539001
1.7289 0.57139999 7.1595001
1.761 0.54079998 7.1648998
1.7946 0.51179999 7.1698999
1.8297 0.48429999 7.1747999
1.8658 0.45860001 7.1792998
1.9031 0.43439999 7.1837001
1.9417 0.412 7.1875
1.9813 0.39140001 7.1911998
2.0216 0.37239999 7.1946001
2.0632 0.35550001 7.1975999
2.1050999 0.34040001 7.2002001
2.1479001 0.32730001 7.2024999
2.1912999 0.31619999 7.2045002
2.2349999 0.30700001 7.2059999
2.2799001 0.29969999 7.2073002
2.3243999 0.2947 7.2083001
2.3201001 0.2472 7.2167001
2.3157001 0.1998 7.2248998
2.3647001 0.1883 7.1788998
2.4138999 0.1788 7.1322999
2.4138999 0.13169999 7.1406002
2.4138999 0.087899998 7.1476002
2.4138999 0.049400002 7.1508002
2.3645999 9.9999997e-05 7.1508002
2.3151 9.9999997e-05 7.1016002
2.3148999 9.9999997e-05 7.0521998
2.2114999 9.9999997e-05 6.8533001
2.161 9.9999997e-05 6.8516998
2.1101999 9.9999997e-05 6.8495998
2.1101999 0.046500001 6.7989001
2.1117001 0.082800001 6.7986999
2.1168001 0.1219 6.7982998
2.1235001 0.1609 6.7978001
2.1229999 0.1692 6.8445001
2.0761001 0.18359999 6.8418999
2.0301001 0.1999 6.8390999
1.9848 0.2185 6.8358998
1.9403 0.23899999 6.8322001
1.8969001 0.26159999 6.8281999
1.8548 0.27770001 6.7772999
1.8369 0.2325 6.7775002
1.7907 0.26350001 6.7722001
1.5267 0.50590003 6.7287998
1.4966 0.54689997 6.7216001
1.3166 0.44980001 6.7017002
1.2637 0.45649999 6.6925001
1.2138 0.39649999 6.5128999
1.2039 0.39289999 6.4643002
1.1768 0.39050001 6.4243002
1.1365 0.38890001 6.3975
0.16419999 0.83399999 7.2948999
0.1314 0.82630002 7.2957001
0.098399997 0.81900001 7.2965999
0.0656 0.81269997 7.2972999
0.0656 0.86180001 7.2916999
0.0328 0.90399998 7.2866001
0.0328 0.95160002 7.2804999
0 0.99400002 7.2749
0 1.0003 7.3221998
0 1.0477 7.3157001
0 1.0543 7.3636999
0 1.2321 7.5672002
0 1.2817 7.5584002
0.048099998 1.3313 7.5493999
0.053599998 1.3123 7.4419999
0.0524 1.3216 7.4945998
0.053800002 1.303 7.3892002
0.0539 1.2937 7.3362999
0.054299999 1.2845 7.2837
0.1094 1.2845 7.2837
0.58950001 1.2481 7.0774002
0.62099999 1.2406 7.0348001
0.64840001 1.2323999 6.9892001
1.1171 1.2322 6.9882002
1.1288 1.2249 6.9464998
1.1647 1.2249 6.9467001
1.2079 1.225 6.9471998
1.2557 1.2252001 6.9475999
1.3036 1.2252001 6.9478002
1.3513 1.2252001 6.9478002
1.3526 1.1769 6.9562998
1.3559 1.1287 6.9647002
1.3559 1.1368001 7.0114002
1.3559 1.1452 7.0584002
1.4037 1.1532 7.0569
1.4089 1.1072 7.0648999
1.4163001 1.0618 7.0731001
1.4259 1.0165 7.0809002
1.4374 0.97180003 7.0889001
1.4511 0.92769998 7.0966001
1.4669 0.88429999 7.1043
1.4845999 0.8416 7.1118002
1.5044 0.79970002 7.1192002
1.5263 0.75880003 7.1262999
1.5497 0.71880001 7.1334
1.5752 0.68010002 7.1402998
1.6026 0.64249998 7.1469002
1.6315 0.60610002 7.1533999
1.6623 0.57130003 7.1595001
1.6946 0.53759998 7.1654
1.7284 0.50559998 7.171
1.7637 0.4752 7.1764002
1.8004 0.44639999 7.1816001
1.8385 0.4192 7.1863999
1.8777 0.39390001 7.1907001
1.9182 0.37040001 7.1947999
1.9598 0.3486 7.1987
2.0021999 0.32890001 7.2023001
2.0457001 0.31099999 7.2055001
2.0897999 0.29530001 7.2080998
2.1347001 0.28150001 7.2104998
2.1802001 0.26989999 7.2126002
2.2263999 0.26010001 7.2143998
2.2734001 0.25260001 7.2157001
2.2671001 0.2054 7.224
2.3157001 0.19140001 7.1781998
2.3647001 0.17990001 7.1321998
2.4138999 0.1705 7.0854001
2.4138999 0.1233 7.0939002
2.4138999 0.0836 7.0995002
2.4138999 0.0447 7.1020002
2.4138999 9.9999997e-05 7.1016002
2.3645999 9.9999997e-05 7.1016002
2.3645999 9.9999997e-05 7.0521998
2.3643999 9.9999997e-05 7.0029998
2.3643999 9.9999997e-05 6.9535999
2.3642001 9.9999997e-05 6.9046001
2.1586001 0.043099999 6.8010001
2.1566999 0.076800004 6.8007002
2.1605 0.1087 6.8003998
2.1710999 0.1487 6.7997999
2.1705999 0.15710001 6.8467002
2.1229999 0.1776 6.8913002
2.0761001 0.1917 6.8888998
2.0301001 0.20819999 6.8860002
1.9848 0.22660001 6.8825998
1.9403 0.2473 6.8790998
1.8969001 0.26989999 6.8751001
1.8545001 0.29429999 6.8706999
1.8545001 0.28600001 6.8239999
1.749 0.29249999 6.7670002
1.5661 0.53670001 6.7315001
1.5374 0.57590002 6.7245998
1.4686 0.58929998 6.7140999
1.2039 0.44209999 6.4611001
1.1768 0.43939999 6.4211001
1.1365 0.43740001 6.3943
0.16419999 0.88950002 7.2884002
0.1313 0.87919998 7.2895999
0.098399997 0.86979997 7.2908001
0.0656 0.91070002 7.2856998
0.0656 0.95929998 7.2796001
0.0328 0.99910003 7.2740998
0 1.0409 7.2684002
0 1.0879 7.2614002
0 1.0949 7.3091998
0 1.1016001 7.3578
0 1.1486 7.3525
0 1.1954 7.3484998
0 1.2422 7.3460002
0 1.2369 7.2895002
0.1185 1.2162 7.2410002
0.086099997 1.225 7.2395
0.16419999 1.2203 7.2403002
0.2132 1.2198 7.2378998
0.67079997 1.2241 6.9415002
1.1027 1.2248 6.9454002
1.123 1.2178 6.9060998
1.1609 1.2168 6.9001999
1.2083 1.2169 6.9007001
1.256 1.2169 6.9008002
1.3038 1.2169 6.901
1.3513 1.2169 6.901
1.3526 1.1686 6.9095001
1.3559 1.1204 6.9180002
1.3615 1.0724 6.9264002
1.3615 1.0807 6.9731998
1.3615 1.0889 7.0201001
1.9403 0.30489999 7.2066002
1.9848 0.28439999 7.2101002
2.2671001 0.1971 7.1771998
2.3157001 0.1833 7.1314998
2.3647001 0.1716 7.0851998
2.4138999 0.16230001 7.0387001
2.4138999 0.1198 7.0458002
2.4138999 0.082900003 7.0510998
2.4138999 0.042599998 7.0517998
2.4138999 9.9999997e-05 7.0521998
2.4138999 9.9999997e-05 7.0029998
2.4138999 9.9999997e-05 6.9535999
2.4138999 9.9999997e-05 6.9046001
2.2407 0.069200002 6.8034
2.1963999 0.0471 6.8021998
2.1829 0.074299999 6.8016
2.1993999 0.098800004 6.8017998
2.2191 0.1388 6.8016
2.2186 0.1471 6.8484998
2.1705999 0.1654 6.8934999
1.8969001 0.27810001 6.9218001
1.8545001 0.30250001 6.9175
1.8133 0.32890001 6.9127998
1.8133 0.3206 6.8660998
1.8133 0.31240001 6.8193998
1.7735 0.34060001 6.8141999
1.7351 0.3707 6.809
1.6982 0.40239999 6.8034
1.6626 0.43579999 6.7975998
1.6286 0.47080001 6.7914
1.5965 0.50730002 6.7849998
1.566 0.54509997 6.7782998
1.5373 0.5844 6.7712998
1.4857 0.65799999 6.7101002
1.4425 0.63309997 6.7063999
1.2039 0.49110001 6.4575
1.1768 0.48809999 6.4175
1.1365 0.48590001 6.3909998
0.16419999 0.94459999 7.2814002
0.1313 0.93199998 7.2831001
0.098399997 0.92030001 7.2845001
0.098399997 0.97060001 7.2779002
0.0656 1.0075999 7.2729998
0.033 1.046 7.2674999
0.033500001 1.0922 7.2607002
0 1.1348 7.2543001
0 1.1423 7.3024001
0 1.1896 7.2957001
0.044599999 1.2273 7.2392001
0.071800001 1.1831 7.2463999
0.095799997 1.1846 7.2463002
0.1276 1.1822 7.2466002
0.16419999 1.1652 7.2494998
0.2132 1.1648999 7.2470002
0.2132 1.1098 7.2557001
0.68849999 1.2153 6.8916998
1.1176 1.2092 6.8569999
1.1612999 1.2085 6.8537998
1.2086999 1.2085 6.8540001
1.2563 1.2088 6.8541002
1.3038 1.2088 6.8543
1.3513 1.2088 6.8543
1.3526 1.1604 6.8628001
1.3559 1.1121 6.8713002
1.3615 1.064 6.8797002
1.3694 1.0164 6.8881001
1.3694 1.0247 6.9348998
1.3694 1.0329 6.9816999
1.3694 1.0411 7.0283999
1.3796 0.99379998 7.0366998
1.392 0.94700003 7.0451002
1.4065 0.90100002 7.0531998
1.4231 0.85549998 7.0612001
1.4419 0.81089997 7.0689998
1.4627 0.76700002 7.0767002
1.4856 0.72430003 7.0841999
1.5106 0.68269998 7.0917001
1.5373 0.64209998 7.0988002
1.566 0.60280001 7.1057
1.5965 0.565 7.1125002
1.6286 0.52850002 7.1188998
1.6626 0.49340001 7.1248999
1.6982 0.46020001 7.1307998
1.7351 0.4285 7.1364002
1.7735 0.39840001 7.1416998
1.8133 0.37020001 7.1466999
1.8545001 0.34380001 7.1514001
1.8969001 0.31940001 7.1557002
1.9403 0.29679999 7.1595998
1.9848 0.27630001 7.1634002
2.0301001 0.2577 7.1666002
2.0761001 0.2412 7.1694002
2.1229999 0.227 7.1719999
2.1705999 0.2148 7.1739998
2.2186 0.2049 7.1757998
2.2671001 0.18889999 7.1304998
2.3157001 0.175 7.0846
2.3647001 0.1635 7.0384998
2.4138999 0.154 6.9919
2.4138999 0.1119 6.9990001
2.4138999 0.078000002 7.0040002
2.4138999 0.042800002 7.0043001
2.4138999 0.0385 6.9566998
2.4138999 0.043099999 6.9198999
2.4138999 0.064400002 6.8762999
2.2676001 0.1311 6.8031001
2.2671001 0.1393 6.8498001
2.2186 0.15539999 6.8951998
2.1705999 0.1737 6.9401999
1.7735 0.34889999 6.8611002
1.7351 0.37889999 6.8558998
1.6982 0.41069999 6.8502998
1.6626 0.44400001 6.8442998
1.6286 0.47909999 6.8381
1.5965 0.51539999 6.8316998
1.566 0.55330002 6.8249998
1.5373 0.59249997 6.8181
1.5106 0.63309997 6.8109999
1.5106 0.62480003 6.7642002
1.4856 0.66649997 6.7568002
1.2666 0.66649997 6.6753998
1.2039 0.54009998 6.4537001
1.1768 0.53670001 6.4137001
0.16419999 0.99980003 7.2740998
0.1313 0.98470002 7.2761998
0.098399997 1.0203 7.2712002
0.065800004 1.0549001 7.2663002
0.066200003 1.1006 7.2596002
0.034699999 1.1375 7.2536998
0 1.1815 7.2466998
0.037799999 1.1818 7.2466998
0.067599997 1.1435 7.2528
0.0973 1.1558 7.2508998
0.1301 1.1373 7.2536998
0.16419999 1.1101 7.2581
0.16419999 1.0551 7.2663002
0.65460002 1.1533 6.8434
0.70499998 1.2069 6.8442998
1.2563 1.2004 6.8074002
1.3038 1.2004 6.8074002
1.3513 1.2004 6.8074002
1.3526 1.1521 6.8158002
1.3559 1.1039 6.8242998
1.3615 1.0559 6.8330002
1.3796 0.98559999 6.9899998
1.392 0.93889999 6.9980998
1.4065 0.89270002 7.0064001
1.4231 0.84719998 7.0142999
1.4627 0.75880003 7.0300002
1.8133 0.3619 7.0998998
1.8545001 0.3355 7.1046
1.8969001 0.31099999 7.1089001
1.9403 0.28850001 7.1128998
1.9848 0.26789999 7.1163998
2.0301001 0.2494 7.1198001
2.0761001 0.233 7.1227002
2.1229999 0.21879999 7.1251998
2.1705999 0.2067 7.1272998
2.2186 0.19660001 7.1290998
2.2671001 0.1805 7.0837998
2.3157001 0.16680001 7.0377998
2.3647001 0.1551 6.9917002
2.4138999 0.1459 6.9452
2.4138999 0.102 6.9531999
2.4138999 0.071400002 6.9587002
2.4138999 0.069600001 6.9330001
2.4138999 0.093599997 6.9169002
2.4138999 0.1294 6.8516002
2.3647001 0.1305 6.8513999
2.3157001 0.1338 6.8506999
2.2671001 0.1476 6.8966999
2.2186 0.1636 6.9419999
2.1705999 0.18189999 6.9868999
1.4856 0.68300003 6.8505001
1.4856 0.67479998 6.8037
1.4627 0.71749997 6.7961998
1.4627 0.70920002 6.7493
1.2684 0.71880001 6.6701999
1.2039 0.58899999 6.4492998
1.1768 0.58530003 6.4092999
0.1313 1.0368 7.2687998
0.098300003 1.069 7.2642002
0.097900003 1.1149 7.2572999
0.1309 1.0881 7.2614002
2.3157001 0.1585 6.9910998
2.3647001 0.147 6.9450002
2.4138999 0.1375 6.8983002
2.3647001 0.13869999 6.8980999
2.3157001 0.142 6.8975
2.2671001 0.1559 6.9433999
2.2186 0.1719 6.9886999
2.1705999 0.1901 7.0337
2.1229999 0.2105 7.0784001
1.4419 0.76130003 6.7884002
1.4419 0.75309998 6.7416
1.27 0.76529998 6.6652002
0.83920002 0.63050002 6.3688998
0.713 1.1977 6.7916002
1.3039 1.1923 6.7607002
1.3513 1.1923 6.7607002
1.3526 1.1439 6.7691002
1.3559 1.0955 6.7775998
1.4231 0.80589998 6.7804999
1.4231 0.79769999 6.7336998
1.4065 0.84320003 6.7256999
1.1768 0.6825 6.3997998
1.0389 0.67869997 6.3639002
0.71619999 1.1885 6.7396998
0.71539998 1.1791 6.6863999
1.2546 1.183 6.7087002
1.3039 1.1839 6.7139001
1.3513 1.1839 6.7139001
1.3526 1.1356 6.7224002
1.3559 1.0874 6.7308998
1.3615 1.0394 6.7392998
1.3694 0.99169999 6.7477999
1.3796 0.94440001 6.7561002
1.392 0.8976 6.7642999
1.4065 0.85140002 6.7725
1.392 0.88919997 6.7175999
1.2039 0.78439999 6.4285002
1.1768 0.73110002 6.3944998
1.1365 0.7281 6.3678999
1.0888 0.727 6.3583999
1.0389 0.727 6.3583999
0.71420002 1.1698 6.6342001
0.71219999 1.1607 6.5822001
0.75800002 1.1589 6.5721002
0.98409998 1.1516 6.5307999
1.025 1.1552 6.5514002
1.0551 1.1579 6.5658002
1.0624 1.1515 6.5299001
1.1104 1.1525 6.5360999
1.1597 1.1533 6.5402002
1.1588 1.1618 6.5886998
1.2138 1.1533 6.5402002
1.2138 1.1635 6.5974998
1.2062 1.1723 6.6472001
1.2596 1.1648999 6.6054001
1.2555 1.1737 6.6554999
1.3055 1.1661 6.6131001
1.3052 1.1748 6.6622
1.3513 1.1758 6.6669998
1.3526 1.1191 6.6286998
1.3526 1.1274 6.6757002
1.3559 1.0791 6.6841998
1.3559 1.0709 6.6374002
1.3615 1.0311 6.6925998
1.3694 0.98339999 6.7010002
1.3796 0.93620002 6.7093
1.3212 0.96499997 6.6479998
1.2639 0.96130002 6.6388998
1.2639 0.91109997 6.6458998
1.2039 0.83319998 6.4222999
1.1768 0.77960002 6.3887
1.0389 0.77520001 6.3527999
0.70719999 1.1503 6.5233002
0.75029999 1.1487 6.5139999
0.79750001 1.1461 6.4991002
0.86400002 1.1408 6.4692001
0.93339998 1.143 6.4815998
0.97820002 1.1423 6.4777999
1.0242 1.1507 6.5246
1.064 1.1432 6.4832001
1.1059 1.1435 6.4840999
1.1583 1.1432 6.4829998
1.2138 1.1432 6.4829998
1.2138 1.1037 6.5486999
1.2138 1.1102999 6.6066999
1.2598 1.1144 6.6139998
1.3055 1.1177 6.6213999
1.3081 1.0652 6.6304998
1.3133 1.0149 6.6392002
1.2639 1.0115 6.6314001
1.2138 0.88880002 6.4640999
1.2039 0.88190001 6.4158001
0.66420001 1.094 6.4861002
0.66420001 1.1423 6.4777999
0.70389998 1.1414 6.4721999
0.7428 1.1398 6.4636998
0.78329998 1.1375 6.4510002
0.82810003 1.1339999 6.4310002
0.8545 1.1311001 6.4141998
0.8865 1.1332 6.4260001
0.93589997 1.1352 6.4375
0.98210001 1.1342 6.4319
1.0246 1.1424 6.4787998
1.0656 1.1344 6.4331002
1.1045001 1.1344 6.4338002
1.1568 1.1348 6.4348998
1.2138 1.1332 6.4257998
1.2138 1.094 6.4913998
1.2629 1.0617 6.6234002
1.2138 0.93769997 6.4572001
1.2039 0.93049997 6.4088998
0.66420001 1.0843 6.4341998
0.66420001 1.1332 6.4257998
0.7015 1.1334 6.4267998
0.73519999 1.1324 6.4211998
0.77209997 1.1303 6.4099998
0.81660002 1.1284 6.3990002
0.85110003 1.1266 6.3887
0.89170003 1.127 6.3908
0.93879998 1.1274 6.3934999
0.98519999 1.1271 6.3919001
1.0251 1.1335 6.4275999
1.0295 1.1267999 6.3899999
1.0725 1.1267999 6.3899999
1.1104 1.1267999 6.3899999
1.1535 1.1276 6.3948002
1.2043 1.1249 6.3786998
1.2138 1.0843 6.4341998
1.2138 0.98680001 6.4499998
1.2039 0.97920001 6.4015999
1.1768 0.97320002 6.3621998
1.2138 1.0355 6.4422002
1.2039 1.0276999 6.3941002
1.1768 1.0215 6.3546
0.67369998 1.0763 6.3871002
0.70179999 1.1276 6.3943
0.72689998 1.1252 6.3804002
0.76130003 1.1224 6.3649998
0.80360001 1.1208 6.3561001
0.84460002 1.12 6.3516002
0.88910002 1.1194 6.3484001
0.93699998 1.1191 6.3466001
0.98750001 1.119 6.3449001
1.0352 1.1188 6.3446999
1.0802 1.1193 6.3471999
1.1162 1.1208 6.3562999
1.1465 1.1226 6.3663001
1.1774 1.1178 6.3386998
1.2039 1.0762 6.3860998
1.0389 1.1114 6.3028002
1.1368001 1.113 6.3119998
1.1768 1.0697 6.3466001
1.1365 1.0652 6.3202
1.0888 1.0635 6.3109002
1.0389 1.0635 6.3109002
0.98900002 1.0635 6.3109002
0.93900001 1.0635 6.3109002
0.88910002 1.0635 6.3109002
0.83920002 1.0635 6.3109002
0.78920001 1.0635 6.3109002
2.2186 0.18009999 7.0356002
2.2671001 0.16410001 6.9900999
2.3157001 0.1503 6.9443998
1.1364319 0.3127597 8.3514366
1.1266385 0.37391481 8.3404655
1.0874349 0.34667858 8.3324118
1.1477277 0.33676788 8.3800793
1.1848028 0.36035815 8.4096498
1.1179672 0.27638075 8.3437223
1.1095362 0.29305452 8.3162603
1.0677327 0.2789771 8.2728157
1.0752392 0.25035369 8.3083706
1.0564756 0.26039091 8.2355928
1.0543417 0.28542414 8.2388859
1.08183 0.34968442 8.3082657
1.04535 0.36288866 8.2451162
1.068305 0.36895299 8.2671566
1.1183876 0.36351782 8.3096199
1.149262 0.38081312 8.2815685
1.1528046 0.36708903 8.3461304
1.1865498 0.36752611 8.2832775
1.2492661 0.37216535 8.3253899
1.2394403 0.37150785 8.3916283
1.1890049 0.32098076 8.4335995
1.1734195 0.27790815 8.3978519
1.1501099 0.23055501 8.3467979
1.0985452 0.25070989 8.345253
1.0654736 0.20459996 8.2937078
1.0288099 0.2157971 8.2688417
1.0189368 0.20862678 8.2221842
1.0133687 0.24885722 8.2273865
1.0245374 0.28760239 8.2374506
1.0126973 0.33882403 8.1998053
1.1160406 0.37898073 8.2362461
1.1860981 0.388704 8.2786856
1.2470481 0.40816319 8.2503242
1.2730906 0.39717814 8.2908649
1.2709965 0.39274463 8.3576269
1.3040215 0.38194603 8.3768272
1.2509786 0.35004479 8.4228764
1.2226619 0.34914255 8.461338
1.2403347 0.32921994 8.4503622
1.1947504 0.26209435 8.4449368
1.1691693 0.2534835 8.3796978
1.1225948 0.21084949 8.3710938
1.1146914 0.19967417 8.3370094
1.0777197 0.16039045 8.2754011
1.0316858 0.14904138 8.2614861
0.99566603 0.18227424 8.2018538
1.0007746 0.16287979 8.1917429
0.98738503 0.23397586 8.1825571
0.99052423 0.25735992 8.1880188
0.9860912 0.30846223 8.1682186
1.0005525 0.37337017 8.1661339
1.0380431 0.40485576 8.1952925
1.079708 0.40567225 8.2021246
1.15063 0.38955224 8.2141886
1.1492733 0.4174251 8.1820927
1.2141279 0.42051592 8.1978207
1.2689136 0.4129712 8.1958666
1.2807471 0.41410571 8.216835
1.3024582 0.39828187 8.2840776
1.3174626 0.38835672 8.3127937
1.2867639 0.39553887 8.3385859
1.31261 0.38462728 8.3517437
1.3485339 0.35642025 8.3754053
1.3316804 0.37728116 8.418663
1.2811815 0.3756541 8.4428463
1.2852207 0.34977382 8.4859915
1.2656282 0.3279053 8.503871
1.2311158 0.27620617 8.4516459
1.2102031 0.24589348 8.4527435
1.1571027 0.20677623 8.4198074
1.1447135 0.17787772 8.3512554
1.094685 0.17018171 8.3255787
1.0553554 0.12898065 8.3013535
1.0470105 0.11228967 8.2618914
1.0072421 0.13730721 8.2384262
0.99425024 0.10910814 8.1730709
0.93152875 0.16625574 8.1434336
0.9653092 0.22820054 8.1479969
0.93334335 0.27746779 8.1421499
0.9637512 0.31123516 8.1497822
0.95926803 0.38253051 8.1485338
1.0198487 0.39411595 8.1531706
1.0441121 0.42169482 8.1335888
1.0872689 0.41280097 8.1666555
1.1094689 0.39796847 8.2029753
1.1454635 0.38837025 8.1853027
1.1307822 0.42825451 8.14219
1.1841528 0.39912295 8.1624184
1.2363355 0.39391321 8.1590071
1.2614993 0.4117651 8.1487694
1.2781777 0.4012239 8.2067413
1.3062546 0.40157026 8.2215967
1.3279226 0.40982074 8.26406
1.3391837 0.36910355 8.3056698
1.35594 0.36108533 8.3310366
1.3687959 0.36548606 8.3440638
1.4248705 0.3746191 8.3867216
1.3879815 0.35591307 8.4068537
1.3819195 0.34112105 8.474247
1.3425958 0.35341859 8.4919472
1.3208026 0.34205303 8.5423851
1.3204148 0.31400207 8.5176353
1.256507 0.27690062 8.4918213
1.2417409 0.25219253 8.473484
1.1849611 0.19860034 8.4309015
1.1870673 0.14078911 8.3835106
1.1448476 0.11347118 8.3777561
1.0918343 0.11019994 8.3360109
1.0775956 0.083887152 8.298687
1.035924 0.063390315 8.241457
1.0174043 0.062584192 8.2130737
0.98213029 0.066187449 8.1907597
0.96037674 0.11199615 8.1675634
0.9166044 0.16658778 8.1042976
0.90388143 0.19703259 8.1020117
0.91809851 0.26916465 8.1100502
0.93071252 0.31759456 8.1095161
0.91595274 0.38417298 8.1155577
0.9383074 0.41346204 8.1281614
1.0044956 0.4019216 8.1412935
1.0285653 0.40605766 8.0941029
1.0572914 0.43989781 8.117712
1.0790718 0.42857081 8.1117287
1.0944847 0.40805075 8.16539
1.1550491 0.40358701 8.1155338
1.1910464 0.41130209 8.1138144
1.2011604 0.41383505 8.1065388
1.2727746 0.39952791 8.1156607
1.2879035 0.42080897 8.1640387
1.3492208 0.38871542 8.1941452
1.4100121 0.36086467 8.4563951
1.3770066 0.34847614 8.5273027
1.3496113 0.33202261 8.5427656
1.3298854 0.31315958 8.5443878
1.2947718 0.2653068 8.5474091
1.2514006 0.23565517 8.517993
1.2396132 0.18196608 8.4552479
1.2110109 0.13638066 8.4186726
1.1826822 0.098363362 8.3925924
1.1184537 0.077238649 8.3842478
1.1006042 0.079315789 8.3256111
1.3553916 0.258706 8.5577583
1.3080826 0.23490024 8.5442238
1.2684997 0.17911187 8.4896727
1.2355278 0.1357736 8.4852352
1.1969429 0.10262577 8.4310989
1.1709814 0.058865767 8.4083347
1.1375941 0.038784921 8.3483496
1.090605 0.050053827 8.3350992
1.0798163 0.02584335 8.30513
1.0481957 0.010905514 8.2559042
1.024752 0.035278089 8.2069464
0.97209877 0.017182382 8.1702375
0.95976669 0.033653539 8.1537933
0.94035757 0.078309804 8.1413651
0.92401135 0.11753596 8.1285782
0.89134246 0.21122347 8.0921841
0.88211352 0.32124802 8.0856543
0.89474726 0.35472184 8.0634842
0.92123002 0.40304527 8.1048079
0.94604135 0.43197915 8.0863838
1.0341198 0.42138365 8.0532265
1.0652871 0.41403338 8.0846996
1.093542 0.4066768 8.0897026
1.1820712 0.42106733 8.0927601
1.2225553 0.4169586 8.0899048
1.3092632 0.39890394 8.1152153
1.4567171 0.36306831 8.4578438
1.4493798 0.34762442 8.5333586
1.386004 0.32506463 8.5680857
1.3793397 0.3184399 8.6005182
1.3611575 0.28451097 8.5865898
1.4377943 0.33585182 8.5844297
1.4001977 0.32970619 8.6032667
1.429989 0.29013416 8.6379776
1.3660123 0.27187151 8.6074762
1.3582214 0.22262165 8.5775642
1.3223161 0.19685289 8.535903
1.2640283 0.14651053 8.5060472
1.2214721 0.096441239 8.4613361
1.2047793 0.067209817 8.4392118
1.1819617 0.030863194 8.3925304
1.1790788 0.038286623 8.3277054
1.1304072 0.011853163 8.2868357
1.1003382 0.019220402 8.262125
1.0697721 0.043289233 8.2275362
1.0569518 0.02902115 8.2054405
1.0271996 0.025155611 8.1498413
0.97927421 0.027125111 8.1016474
0.96984923 0.032559358 8.0966721
0.93326461 0.029054997 8.1221399
0.91919714 0.064773403 8.1278553
0.89016408 0.090604305 8.067502
0.89747185 0.1266557 8.0642147
0.84439367 0.15442955 8.0618677
0.85278803 0.31304204 8.0275354
0.86350995 0.3692081 8.0572386
0.92929059 0.4406085 8.0452795
0.93248975 0.41897857 8.0148573
1.0193186 0.4381201 8.0367775
1.1263289 0.42370826 8.026763
0.83503717 0.14261843 8.033392
0.8186512 0.13900658 8.0039892
0.82037759 0.17649333 8.0360117
0.82700074 0.32262743 8.0007687
0.81395864 0.37968799 8.0282879
0.86535341 0.41165143 8.0446119
0.86365491 0.42034513 8.0033436
0.90390259 0.45564273 7.9784269
0.92925733 0.44549069 7.9930835
0.99410582 0.43246749 7.9659309
1.4881917 0.33679011 8.6142893
1.4623306 0.34145328 8.6333141
1.4662508 0.30313686 8.640501
1.4254704 0.26303521 8.633893
1.3742226 0.21819945 8.6137142
1.333493 0.19764525 8.5632
1.3101245 0.16251028 8.5566301
1.269291 0.097839616 8.4898796
1.2198057 0.065128401 8.4899054
1.1843282 0.032744419 8.418951
1.2426473 0.017492494 8.4173374
1.1964775 0.028723788 8.385149
1.2258079 0.017430888 8.3488455
1.2176342 0.033756811 8.3195305
1.1803311 0.041339882 8.2609997
1.1536989 0.036318831 8.2466698
1.1178627 0.012501925 8.2013645
1.092512 0.037598219 8.181282
1.0690516 0.036574226 8.1162004
1.0054832 0.012231216 8.0794764
0.99670064 0.04063293 8.0651751
0.90054566 0.011486 8.0437813
0.88880849 0.046009604 8.0705709
0.86296445 0.038389347 8.0495949
0.83276725 0.060478494 8.0545521
1.4778692 0.244353 8.6300211
1.4414605 0.20293424 8.6089916
1.3842591 0.17206915 8.6070833
1.3389361 0.16524309 8.5514154
1.2942582 0.12774175 8.5317335
1.2884498 0.08247792 8.4984417
1.2419895 0.047022954 8.4902534
1.2748321 0.0373898 8.4462509
1.2980796 0.035860192 8.3878231
1.2852851 0.02996997 8.3614807
1.2836094 0.049774949 8.325635
1.2576423 0.039062858 8.2974472
1.2554313 0.025296148 8.264987
1.1971045 0.013282455 8.2496958
1.1644456 0.039403491 8.1851435
1.1597018 0.030649381 8.1513672
1.1270462 0.030993912 8.1189375
0.93488479 0.029562138 8.0078192
0.88030523 0.017309578 7.9986286
0.86073607 0.017243525 7.9835024
0.79944611 0.034007803 8.0285816
0.79417878 0.095889077 8.0068789
0.77368289 0.094001226 7.9822669
0.76563865 0.125957 7.9802542
0.78509837 0.16225824 7.982419
0.76494235 0.39139807 7.9910097
0.80384475 0.43454814 7.9791694
0.83234727 0.43083945 8.0224295
0.84593868 0.46156567 7.9545588
0.8798486 0.44532439 7.934032
0.90493387 0.4489252 7.9220891
0.92477077 0.47471955 7.9541855
0.99004006 0.47384182 7.9163108
1.3686247 0.44637793 7.953145
1.5634302 0.34598067 8.6053638
1.5241332 0.32574236 8.6509857
1.4908359 0.33461887 8.6643105
1.4770691 0.29208457 8.6766071
1.2685299 0.50383288 7.8762183
1.3210206 0.45505986 7.9281206
1.3770766 0.47845161 7.9191251
1.4099996 0.47242245 7.937047
1.4672374 0.47036126 7.9117689
1.51018 0.45707881 7.9104128
1.6479565 0.32201195 8.6059151
1.6106088 0.3254351 8.5992441
1.5940299 0.33693385 8.6284533
1.5387827 0.32914659 8.6727896
1.5262496 0.30818483 8.6754351
1.5193502 0.27411658 8.6924582
1.5076058 0.24069735 8.6745844
1.4535233 0.21305367 8.643342
1.4256974 0.19484296 8.6214523
1.3706033 0.16254538 8.6159897
1.3633193 0.11026868 8.5845118
1.315495 0.087386951 8.5422812
1.2655782 0.043405559 8.4881268
1.3255018 0.020937644 8.461607
1.3216094 0.023597799 8.4454584
1.348076 0.016799148 8.410552
1.337905 0.048718471 8.3762617
1.3789402 0.026550483 8.3465605
1.3139533 0.044737514 8.3075352
1.2935562 0.046926249 8.2799702
1.2601467 0.041589409 8.2447491
1.2257649 0.023899632 8.1840925
1.2069395 0.012872242 8.1583805
1.1744277 0.040637188 8.127243
1.1662848 0.033898991 8.093442
1.1344262 0.032672253 8.0452175
0.90278918 0.039128963 7.9733858
0.86683142 0.023556124 7.9537072
0.7942456 0.020376595 7.9436526
0.75983745 0.019416127 7.9768038
0.75081837 0.047396496 7.957531
0.74634606 0.074752688 7.9578443
0.75067776 0.13414411 7.9465303
0.74782008 0.16715573 7.9550304
0.79655647 0.44720367 7.94806
0.83260256 0.48865265 7.9152603
0.8747552 0.50578302 7.8820171
0.90076828 0.4725624 7.9115591
0.91401404 0.48186278 7.9332552
0.95154822 0.46337694 7.9195967
0.97553569 0.45833093 7.8993163
1.2257193 0.50323099 7.8532276
1.2779852 0.51986158 7.8462768
1.3345255 0.48704723 7.8670783
1.3911628 0.47527313 7.9069867
1.4039695 0.47246474 7.9152746
1.464774 0.49193016 7.911231
1.4976556 0.47201931 7.8747945
1.5278339 0.47979236 7.8641181
1.6828063 0.34226277 8.6446791
1.6234365 0.31316012 8.6550884
1.6043869 0.33108103 8.6842794
1.5757506 0.3061583 8.7199173
1.5934216 0.28695738 8.7099257
1.524742 0.23285806 8.6918154
1.4857875 0.22664483 8.6815872
1.4733875 0.17548305 8.6487808
1.4153247 0.1583692 8.6159725
1.3884567 0.10077106 8.6173716
1.3531905 0.076775372 8.5840597
1.3039604 0.033644997 8.5460205
1.3372278 0.04283794 8.5004082
1.3921146 0.016692586 8.4480429
1.3850212 0.01676368 8.4111729
1.4411159 0.03267346 8.3821735
1.4060801 0.033005267 8.3488111
1.4010631 0.045081247 8.3306351
1.3710855 0.034018204 8.283041
1.3649927 0.030166205 8.2763672
1.3126694 0.022251537 8.2232161
1.3009537 0.024611313 8.2006435
1.2679744 0.043184474 8.1595173
1.2530158 0.030995151 8.1461411
1.2238162 0.032603201 8.1148958
1.1866974 0.039949212 8.0592833
1.1704903 0.036429469 8.0290241
0.76111645 0.040949699 7.9444666
0.71131009 0.020877611 7.897614
0.68517309 0.048002604 7.9546351
0.68869072 0.091436006 7.9238334
0.68065506 0.12756956 7.9457431
0.69057989 0.15695728 7.9382787
0.68963629 0.23084651 7.9206896
0.81967527 0.47732145 7.8704371
0.81512481 0.49084091 7.873868
0.88479441 0.50245094 7.8585653
0.91413903 0.46656698 7.8747573
0.94200611 0.50768852 7.8781261
0.98424041 0.48678178 7.8436503
1.1732718 0.51392961 7.8373175
